-48.514034 -118.873016 818.888306
0.461978 -119.731232 828.918945
49.437992 -120.589439 838.949585
98.414001 -121.447647 848.980225
147.390015 -122.305855 859.010864
196.366028 -123.164062 869.041504
245.342041 -124.022270 879.072144
294.318054 -124.880478 889.102783
343.294067 -125.738686 899.133423
392.270081 -126.596893 909.164062
-45.462006 -70.133804 808.156433
3.514007 -70.992012 818.187073
52.490021 -71.850220 828.217712
101.466034 -72.708427 838.248352
150.442047 -73.566635 848.278992
199.418060 -74.424843 858.309631
248.394073 -75.283051 868.340210
297.370087 -76.141258 878.370850
346.346100 -76.999466 888.401489
395.322113 -77.857681 898.432129
-42.409977 -21.394583 797.424500
6.566035 -22.252790 807.455139
55.542049 -23.111000 817.485779
104.518059 -23.969208 827.516418
153.494080 -24.827415 837.547058
202.470093 -25.685625 847.577698
251.446106 -26.543833 857.608337
300.422119 -27.402042 867.638977
349.398132 -28.260250 877.669617
398.374146 -29.118460 887.700256
-39.357948 27.344637 786.692627
9.618064 26.486427 796.723267
58.594078 25.628220 806.753906
107.570091 24.770010 816.784546
156.546097 23.911802 826.815186
205.522110 23.053595 836.845825
254.498123 22.195385 846.876465
303.474152 21.337177 856.907043
352.450165 20.478968 866.937683
401.426178 19.620760 876.968323
-36.305920 76.083855 775.960754
12.670092 75.225647 785.991333
61.646107 74.367439 796.021973
110.622116 73.509232 806.052612
159.598129 72.651024 816.083252
208.574142 71.792816 826.113892
257.550171 70.934601 836.144531
306.526184 70.076393 846.175171
355.502197 69.218185 856.205811
404.478210 68.359978 866.236450
-33.253891 124.823074 765.228821
15.722120 123.964867 775.259460
64.698135 123.106659 785.290100
113.674149 122.248451 795.320740
162.650162 121.390244 805.351379
211.626175 120.532028 815.382019
260.602173 119.673820 825.412659
309.578186 118.815613 835.443298
358.554199 117.957405 845.473938
407.530212 117.099197 855.504517
-30.201864 173.562286 754.496948
18.774149 172.704086 764.527588
67.750160 171.845871 774.558228
116.726173 170.987671 784.588806
165.702194 170.129456 794.619446
214.678207 169.271255 804.650085
263.654205 168.413040 814.680725
312.630219 167.554840 824.711365
361.606232 166.696625 834.742004
410.582245 165.838409 844.772644
74.364975 -312.989105 748.444092
123.446777 -308.625183 756.925415
172.528580 -304.261261 765.406738
221.610382 -299.897308 773.888062
270.692200 -295.533386 782.369385
319.773987 -291.169464 790.850708
368.855804 -286.805542 799.332031
417.937592 -282.441620 807.813354
467.019409 -278.077698 816.294678
516.101196 -273.713776 824.776001
67.476501 -266.019165 764.140442
116.558304 -261.655243 772.621765
165.640106 -257.291321 781.103088
214.721909 -252.927383 789.584351
263.803711 -248.563461 798.065674
312.885529 -244.199539 806.546997
361.967316 -239.835617 815.028320
411.049133 -235.471695 823.509644
460.130920 -231.107773 831.990967
509.212738 -226.743851 840.472290
60.588032 -219.049225 779.836731
109.669830 -214.685303 788.318054
158.751633 -210.321381 796.799377
207.833435 -205.957458 805.280701
256.915253 -201.593536 813.762024
305.997040 -197.229614 822.243347
355.078857 -192.865692 830.724670
404.160645 -188.501770 839.205994
453.242462 -184.137848 847.687317
502.324249 -179.773926 856.168640
53.699558 -172.079300 795.533081
102.781364 -167.715378 804.014404
151.863159 -163.351456 812.495728
200.944962 -158.987534 820.976990
250.026764 -154.623611 829.458313
299.108582 -150.259674 837.939636
348.190369 -145.895752 846.420959
397.272186 -141.531830 854.902283
446.353973 -137.167908 863.383606
495.435791 -132.803986 871.864929
46.811085 -125.109367 811.229370
95.892891 -120.745438 819.710693
144.974686 -116.381516 828.192017
194.056488 -112.017593 836.673340
243.138290 -107.653671 845.154663
292.220093 -103.289749 853.635986
341.301910 -98.925827 862.117310
390.383698 -94.561905 870.598633
439.465515 -90.197983 879.079956
488.547302 -85.834053 887.561279
39.922611 -78.139435 826.925720
89.004417 -73.775513 835.407043
138.086212 -69.411583 843.888306
187.168030 -65.047661 852.369629
236.249832 -60.683739 860.850952
285.331635 -56.319817 869.332275
334.413422 -51.955894 877.813599
383.495239 -47.591972 886.294922
432.577026 -43.228046 894.776245
481.658844 -38.864124 903.257568
33.034142 -31.169500 842.622009
82.115944 -26.805578 851.103333
131.197754 -22.441654 859.584656
180.279556 -18.077732 868.065979
229.361359 -13.713808 876.547302
278.443146 -9.349885 885.028625
327.524963 -4.985962 893.509949
376.606750 -0.622039 901.991272
425.688568 3.741884 910.472595
474.770355 8.105807 918.953918
-22.120300 -5.074104 803.465637
26.996668 -6.123001 812.762024
76.113632 -7.171897 822.058472
125.230598 -8.220794 831.354858
174.347565 -9.269691 840.651306
223.464539 -10.318587 849.947693
272.581512 -11.367484 859.244141
321.698486 -12.416380 868.540527
370.815430 -13.465277 877.836914
419.932404 -14.514174 887.133362
-16.434824 37.729679 778.256287
32.682144 36.680782 787.552673
81.799110 35.631889 796.849121
130.916077 34.582993 806.145508
180.033051 33.534096 815.441956
229.150009 32.485199 824.738342
278.266968 31.436300 834.034790
327.383942 30.387403 843.331177
376.500916 29.338507 852.627563
425.617889 28.289612 861.924011
-10.749348 80.533463 753.046936
38.367619 79.484566 762.343323
87.484589 78.435669 771.639771
136.601547 77.386772 780.936157
185.718521 76.337875 790.232605
234.835495 75.288979 799.528992
283.952454 74.240082 808.825439
333.069427 73.191193 818.121826
382.186401 72.142296 827.418213
431.303345 71.093399 836.714661
-5.063871 123.337250 727.837585
44.053097 122.288353 737.133972
93.170067 121.239456 746.430420
142.287033 120.190559 755.726807
191.403992 119.141663 765.023254
240.520966 118.092766 774.319641
289.637939 117.043869 783.616089
338.754913 115.994972 792.912476
387.871857 114.946075 802.208862
436.988831 113.897179 811.505310
0.621605 166.141037 702.628235
49.738571 165.092133 711.924622
98.855537 164.043243 721.221069
147.972504 162.994339 730.517456
197.089478 161.945450 739.813904
246.206436 160.896545 749.110291
295.323395 159.847656 758.406738
344.440369 158.798752 767.703125
393.557343 157.749863 776.999512
442.674316 156.700958 786.295959
6.307081 208.944824 677.418884
55.424049 207.895920 686.715271
104.541016 206.847031 696.011719
153.657990 205.798126 705.308105
202.774948 204.749237 714.604553
251.891922 203.700333 723.900940
301.008881 202.651443 733.197388
350.125854 201.602539 742.493774
399.242828 200.553650 751.790161
448.359772 199.504745 761.086609
11.992557 251.748611 652.209534
61.109524 250.699707 661.505920
110.226494 249.650818 670.802368
159.343460 248.601913 680.098755
208.460419 247.553024 689.395203
257.577393 246.504120 698.691589
306.694366 245.455231 707.988037
355.811340 244.406326 717.284424
404.928284 243.357437 726.580811
454.045258 242.308533 735.877258
68.357857 -132.354080 817.473022
117.136391 -123.288109 823.674866
165.914917 -114.222130 829.876709
214.693451 -105.156158 836.078552
263.471985 -96.090187 842.280396
312.250519 -87.024208 848.482239
361.029053 -77.958237 854.684082
409.807587 -68.892258 860.885925
458.586121 -59.826286 867.087769
507.364655 -50.760311 873.289612
62.998592 -88.068909 794.887573
111.777130 -79.002930 801.089417
160.555664 -69.936958 807.291260
209.334198 -60.870983 813.493103
258.112732 -51.805008 819.694946
306.891266 -42.739033 825.896790
355.669800 -33.673061 832.098633
404.448334 -24.607086 838.300476
453.226868 -15.541111 844.502319
502.005402 -6.475136 850.704163
57.639332 -43.783733 772.302124
106.417862 -34.717758 778.503967
155.196396 -25.651783 784.705811
203.974930 -16.585808 790.907654
252.753464 -7.519834 797.109497
301.531982 1.546141 803.311340
350.310516 10.612115 809.513184
399.089050 19.678089 815.715027
447.867584 28.744064 821.916870
496.646118 37.810040 828.118713
52.280067 0.501443 749.716736
101.058601 9.567417 755.918579
149.837128 18.633392 762.120422
198.615662 27.699368 768.322266
247.394196 36.765343 774.524109
296.172729 45.831314 780.725952
344.951263 54.897289 786.927795
393.729797 63.963264 793.129639
442.508331 73.029236 799.331482
491.286865 82.095215 805.533325
46.920807 44.786617 727.131287
95.699341 53.852592 733.333130
144.477875 62.918568 739.534973
193.256409 71.984543 745.736816
242.034943 81.050514 751.938660
290.813477 90.116493 758.140503
339.592010 99.182465 764.342346
388.370544 108.248444 770.544189
437.149078 117.314415 776.746033
485.927612 126.380386 782.947876
41.561543 89.071793 704.545837
90.340073 98.137764 710.747681
139.118607 107.203743 716.949524
187.897141 116.269714 723.151367
236.675674 125.335693 729.353210
285.454193 134.401672 735.555054
334.232727 143.467636 741.756897
383.011261 152.533615 747.958740
431.789795 161.599594 754.160583
480.568329 170.665558 760.362427
36.202278 133.356964 681.960449
84.980812 142.422943 688.162292
133.759338 151.488922 694.364136
182.537872 160.554886 700.565979
231.316406 169.620865 706.767822
280.094940 178.686844 712.969666
328.873474 187.752823 719.171509
377.652008 196.818787 725.373352
426.430542 205.884766 731.575195
475.209076 214.950745 737.777039
-70.279022 -19.091606 774.134705
-22.716784 -30.796497 784.176086
24.845453 -42.501389 794.217468
72.407692 -54.206280 804.258850
119.969925 -65.911171 814.300232
167.532166 -77.616058 824.341553
215.094391 -89.320953 834.382935
262.656647 -101.025841 844.424316
310.218872 -112.730728 854.465698
357.781097 -124.435623 864.507080
-55.453972 24.579304 754.819702
-7.891735 12.874413 764.861084
39.670502 1.169522 774.902466
87.232735 -10.535368 784.943848
134.794968 -22.240259 794.985168
182.357208 -33.945148 805.026550
229.919449 -45.650040 815.067932
277.481689 -57.354931 825.109314
325.043915 -69.059822 835.150696
372.606171 -80.764709 845.192078
-40.628922 68.250214 735.504700
6.933314 56.545322 745.546082
54.495552 44.840431 755.587463
102.057785 33.135540 765.628784
149.620026 21.430651 775.670166
197.182266 9.725760 785.711548
244.744492 -1.979131 795.752930
292.306732 -13.684021 805.794312
339.868958 -25.388912 815.835693
387.431213 -37.093803 825.877075
-25.803873 111.921120 716.189697
21.758362 100.216232 726.231079
69.320602 88.511345 736.272400
116.882835 76.806450 746.313782
164.445068 65.101562 756.355164
212.007309 53.396671 766.396545
259.569550 41.691780 776.437927
307.131775 29.986889 786.479309
354.694031 18.281998 796.520691
402.256256 6.577107 806.562073
-10.978825 155.592026 696.874695
36.583412 143.887146 706.916016
84.145645 132.182251 716.957397
131.707886 120.477364 726.998779
179.270126 108.772469 737.040161
226.832352 97.067581 747.081543
274.394592 85.362686 757.122925
321.956818 73.657799 767.164307
369.519073 61.952908 777.205688
417.081299 50.248016 787.247070
3.846224 199.262939 677.559631
51.408459 187.558044 687.601013
98.970695 175.853165 697.642395
146.532928 164.148270 707.683777
194.095169 152.443375 717.725159
241.657410 140.738495 727.766541
289.219635 129.033600 737.807922
336.781891 117.328705 747.849304
384.344116 105.623817 757.890686
431.906342 93.918922 767.932007
18.671272 242.933853 658.244629
66.233505 231.228958 668.286011
113.795746 219.524063 678.327393
161.357986 207.819183 688.368774
208.920212 196.114288 698.410156
256.482452 184.409393 708.451538
304.044678 172.704514 718.492920
351.606934 160.999619 728.534302
399.169159 149.294724 738.575623
446.731384 137.589828 748.617004
55.534580 -146.861633 784.090820
101.969322 -144.060425 802.420227
148.404068 -141.259216 820.749634
194.838821 -138.458008 839.079102
241.273560 -135.656784 857.408508
287.708313 -132.855576 875.737915
334.143066 -130.054367 894.067322
380.577789 -127.253159 912.396790
427.012543 -124.451950 930.726196
473.447296 -121.650734 949.055603
59.643169 -100.218506 766.554077
106.077911 -97.417297 784.883484
152.512665 -94.616081 803.212891
198.947403 -91.814873 821.542297
245.382156 -89.013664 839.871765
291.816895 -86.212448 858.201172
338.251648 -83.411240 876.530579
384.686401 -80.610023 894.859985
431.121124 -77.808815 913.189453
477.555878 -75.007607 931.518860
63.751759 -53.575375 749.017334
110.186501 -50.774162 767.346741
156.621246 -47.972954 785.676147
203.056000 -45.171741 804.005554
249.490738 -42.370529 822.334961
295.925476 -39.569317 840.664429
342.360229 -36.768108 858.993835
388.794983 -33.966896 877.323242
435.229736 -31.165686 895.652649
481.664459 -28.364473 913.982117
67.860352 -6.932243 731.480530
114.295090 -4.131032 749.809998
160.729843 -1.329821 768.139404
207.164581 1.471390 786.468811
253.599335 4.272601 804.798218
300.034088 7.073812 823.127625
346.468811 9.875024 841.457092
392.903564 12.676234 859.786499
439.338318 15.477446 878.115906
485.773071 18.278656 896.445312
71.968941 39.710888 713.943787
118.403687 42.512100 732.273193
164.838425 45.313309 750.602661
211.273178 48.114521 768.932068
257.707916 50.915733 787.261475
304.142670 53.716942 805.590881
350.577423 56.518154 823.920288
397.012146 59.319366 842.249756
443.446899 62.120575 860.579163
489.881653 64.921791 878.908569
76.077530 86.354019 696.407043
122.512276 89.155228 714.736450
168.947021 91.956444 733.065857
215.381760 94.757652 751.395325
261.816498 97.558861 769.724731
308.251251 100.360077 788.054138
354.686005 103.161285 806.383545
401.120758 105.962494 824.712952
447.555481 108.763710 843.042419
493.990234 111.564919 861.371826
80.186119 132.997147 678.870300
126.620865 135.798355 697.199707
173.055603 138.599579 715.529114
219.490356 141.400787 733.858521
265.925110 144.201996 752.187988
312.359833 147.003204 770.517395
358.794586 149.804413 788.846802
405.229340 152.605621 807.176208
451.664093 155.406845 825.505615
498.098816 158.208054 843.835083
56.225670 -107.370560 679.409729
104.603561 -106.299568 691.996704
152.981461 -105.228584 704.583740
201.359344 -104.157593 717.170715
249.737244 -103.086609 729.757690
298.115143 -102.015625 742.344727
346.493042 -100.944633 754.931702
394.870911 -99.873650 767.518677
443.248810 -98.802658 780.105713
491.626709 -97.731674 792.692688
55.228325 -57.382271 678.989685
103.606216 -56.311283 691.576660
151.984116 -55.240295 704.163635
200.362000 -54.169308 716.750671
248.739899 -53.098320 729.337646
297.117798 -52.027332 741.924622
345.495667 -50.956348 754.511658
393.873566 -49.885361 767.098633
442.251465 -48.814373 779.685608
490.629364 -47.743385 792.272644
54.230980 -7.393983 678.569580
102.608871 -6.322996 691.156616
150.986771 -5.252009 703.743591
199.364655 -4.181022 716.330566
247.742554 -3.110034 728.917603
296.120453 -2.039047 741.504578
344.498322 -0.968060 754.091553
392.876221 0.102928 766.678589
441.254120 1.173915 779.265564
489.632019 2.244902 791.852539
53.233631 42.594303 678.149536
101.611526 43.665291 690.736511
149.989410 44.736279 703.323547
198.367310 45.807266 715.910522
246.745209 46.878254 728.497498
295.123108 47.949242 741.084534
343.500977 49.020226 753.671509
391.878876 50.091213 766.258484
440.256775 51.162201 778.845520
488.634674 52.233189 791.432495
52.236286 92.582588 677.729492
100.614182 93.653580 690.316467
148.992065 94.724564 702.903442
197.369965 95.795555 715.490479
245.747864 96.866539 728.077454
294.125763 97.937531 740.664429
342.503632 99.008514 753.251465
390.881531 100.079498 765.838440
439.259430 101.150490 778.425476
487.637329 102.221474 791.012451
51.238941 142.570877 677.309387
99.616829 143.641861 689.896423
147.994720 144.712860 702.483398
196.372620 145.783844 715.070374
244.750504 146.854828 727.657410
293.128418 147.925812 740.244385
341.506287 148.996796 752.831421
389.884186 150.067795 765.418396
438.262085 151.138779 778.005371
486.639984 152.209763 790.592407
50.241592 192.559158 676.889343
98.619484 193.630157 689.476379
146.997375 194.701141 702.063354
195.375275 195.772125 714.650330
243.753159 196.843109 727.237366
292.131042 197.914108 739.824341
340.508942 198.985092 752.411316
388.886841 200.056076 764.998352
437.264740 201.127060 777.585327
485.642639 202.198044 790.172302
86.920143 -261.891815 670.163879
132.323593 -265.485565 690.794250
177.727036 -269.079346 711.424622
223.130478 -272.673096 732.054993
268.533936 -276.266846 752.685364
313.937378 -279.860626 773.315674
359.340820 -283.454376 793.946045
404.744263 -287.048126 814.576416
450.147736 -290.641876 835.206787
495.551178 -294.235657 855.837158
85.948059 -213.048401 680.811646
131.351501 -216.642151 701.442017
176.754959 -220.235916 722.072388
222.158401 -223.829666 742.702759
267.561859 -227.423431 763.333130
312.965302 -231.017181 783.963440
358.368744 -234.610947 804.593811
403.772186 -238.204712 825.224182
449.175629 -241.798462 845.854553
494.579102 -245.392227 866.484924
84.975983 -164.204971 691.459412
130.379425 -167.798721 712.089783
175.782883 -171.392487 732.720154
221.186325 -174.986252 753.350525
266.589783 -178.580002 773.980896
311.993225 -182.173767 794.611267
357.396667 -185.767517 815.241577
402.800110 -189.361282 835.871948
448.203552 -192.955048 856.502319
493.607025 -196.548798 877.132690
84.003899 -115.361542 702.107178
129.407349 -118.955307 722.737549
174.810791 -122.549065 743.367920
220.214249 -126.142822 763.998291
265.617706 -129.736588 784.628662
311.021149 -133.330338 805.259033
356.424591 -136.924103 825.889343
401.828033 -140.517853 846.519714
447.231476 -144.111618 867.150085
492.634918 -147.705383 887.780457
83.031822 -66.518120 712.754944
128.435272 -70.111877 733.385315
173.838715 -73.705635 754.015686
219.242157 -77.299400 774.646057
264.645599 -80.893158 795.276428
310.049072 -84.486916 815.906799
355.452515 -88.080673 836.537109
400.855957 -91.674431 857.167480
446.259399 -95.268196 877.797852
491.662842 -98.861954 898.428223
82.059738 -17.674696 723.402710
127.463188 -21.268456 744.033081
172.866638 -24.862215 764.663452
218.270081 -28.455973 785.293823
263.673523 -32.049732 805.924194
309.076965 -35.643490 826.554565
354.480438 -39.237251 847.184875
399.883881 -42.831009 867.815247
445.287323 -46.424770 888.445618
490.690765 -50.018528 909.075989
81.087662 31.168728 734.050476
126.491104 27.574968 754.680847
171.894562 23.981211 775.311218
217.298004 20.387451 795.941589
262.701447 16.793692 816.571960
308.104889 13.199933 837.202332
353.508331 9.606174 857.832642
398.911804 6.012415 878.463013
444.315247 2.418656 899.093384
489.718689 -1.175103 919.723755
13.900007 -111.257095 704.826355
63.666569 -110.725952 709.622925
113.433136 -110.194801 714.419495
163.199692 -109.663658 719.216064
212.966263 -109.132515 724.012634
262.732819 -108.601372 728.809204
312.499390 -108.070229 733.605774
362.265961 -107.539085 738.402344
412.032501 -107.007942 743.198914
461.799072 -106.476799 747.995483
12.096711 -63.114056 718.205322
61.863274 -62.582912 723.001892
111.629837 -62.051769 727.798462
161.396408 -61.520626 732.595032
211.162964 -60.989479 737.391602
260.929535 -60.458336 742.188171
310.696106 -59.927193 746.984741
360.462646 -59.396049 751.781250
410.229218 -58.864906 756.577820
459.995789 -58.333763 761.374390
10.293415 -14.971020 731.584290
60.059978 -14.439876 736.380859
109.826546 -13.908731 741.177429
159.593109 -13.377588 745.973938
209.359665 -12.846444 750.770508
259.126221 -12.315301 755.567078
308.892792 -11.784157 760.363647
358.659363 -11.253014 765.160217
408.425934 -10.721869 769.956787
458.192474 -10.190725 774.753357
8.490119 33.172016 744.963196
58.256683 33.703159 749.759766
108.023247 34.234306 754.556335
157.789810 34.765450 759.352905
207.556381 35.296593 764.149475
257.322937 35.827736 768.946045
307.089508 36.358879 773.742615
356.856079 36.890022 778.539185
406.622620 37.421165 783.335754
456.389191 37.952312 788.132324
6.686823 81.315056 758.342163
56.453388 81.846199 763.138733
106.219948 82.377342 767.935303
155.986511 82.908485 772.731873
205.753082 83.439629 777.528442
255.519638 83.970772 782.325012
305.286194 84.501915 787.121521
355.052765 85.033058 791.918091
404.819336 85.564201 796.714661
454.585907 86.095345 801.511230
4.883527 129.458084 771.721130
54.650089 129.989227 776.517639
104.416656 130.520370 781.314209
154.183212 131.051529 786.110779
203.949783 131.582672 790.907349
253.716339 132.113815 795.703918
303.482910 132.644958 800.500488
353.249481 133.176102 805.297058
403.016022 133.707245 810.093628
452.782593 134.238388 814.890198
3.080231 177.601120 785.100037
52.846794 178.132278 789.896606
102.613358 178.663422 794.693176
152.379929 179.194565 799.489746
202.146484 179.725708 804.286316
251.913055 180.256851 809.082886
301.679626 180.787994 813.879456
351.446167 181.319138 818.676025
401.212738 181.850281 823.472595
450.979309 182.381424 828.269104
67.577629 -265.620361 674.624023
115.890938 -268.481750 687.179382
164.204254 -271.343140 699.734741
212.517548 -274.204559 712.290039
260.830872 -277.065948 724.845398
309.144165 -279.927338 737.400757
357.457489 -282.788727 749.956116
405.770782 -285.650146 762.511414
454.084106 -288.511536 775.066772
502.397400 -291.372925 787.622131
64.374321 -221.073288 697.102844
112.687630 -223.934677 709.658203
161.000931 -226.796082 722.213562
209.314240 -229.657471 734.768860
257.627563 -232.518875 747.324219
305.940857 -235.380280 759.879578
354.254181 -238.241669 772.434937
402.567474 -241.103073 784.990234
450.880798 -243.964462 797.545593
499.194092 -246.825867 810.100952
61.171013 -176.526215 719.581665
109.484322 -179.387619 732.137024
157.797623 -182.249008 744.692383
206.110931 -185.110413 757.247742
254.424240 -187.971802 769.803040
302.737549 -190.833206 782.358398
351.050873 -193.694611 794.913757
399.364166 -196.556000 807.469116
447.677490 -199.417404 820.024414
495.990784 -202.278793 832.579773
57.967705 -131.979141 742.060486
106.281013 -134.840546 754.615845
154.594315 -137.701935 767.171204
202.907623 -140.563339 779.726562
251.220932 -143.424744 792.281860
299.534241 -146.286133 804.837219
347.847565 -149.147537 817.392578
396.160858 -152.008926 829.947937
444.474182 -154.870331 842.503235
492.787476 -157.731735 855.058594
54.764393 -87.432076 764.539307
103.077705 -90.293472 777.094666
151.391006 -93.154877 789.650024
199.704315 -96.016273 802.205383
248.017624 -98.877670 814.760681
296.330933 -101.739067 827.316040
344.644257 -104.600464 839.871399
392.957550 -107.461868 852.426758
441.270874 -110.323265 864.982056
489.584167 -113.184662 877.537415
51.561085 -42.885010 787.018127
99.874397 -45.746407 799.573486
148.187698 -48.607803 812.128845
196.501007 -51.469204 824.684204
244.814316 -54.330601 837.239502
293.127625 -57.192001 849.794861
341.440948 -60.053398 862.350220
389.754242 -62.914799 874.905579
438.067535 -65.776192 887.460876
486.380859 -68.637596 900.016235
48.357777 1.662060 809.496948
96.671082 -1.199338 822.052307
144.984390 -4.060737 834.607666
193.297699 -6.922135 847.163025
241.611008 -9.783533 859.718323
289.924316 -12.644932 872.273682
338.237640 -15.506330 884.829041
386.550934 -18.367729 897.384399
434.864227 -21.229128 909.939697
483.177551 -24.090525 922.495056
