-539.061279 -130.214966 906.690491
-489.513092 -132.292007 900.313721
-439.964905 -134.369034 893.937012
-390.416718 -136.446060 887.560303
-340.868500 -138.523102 881.183594
-291.320312 -140.600128 874.806885
-241.772125 -142.677155 868.430115
-192.223938 -144.754196 862.053406
-142.675735 -146.831223 855.676697
-93.127548 -148.908264 849.299988
-538.322693 -81.272575 896.487671
-488.774506 -83.349602 890.110962
-439.226318 -85.426636 883.734253
-389.678131 -87.503670 877.357544
-340.129944 -89.580704 870.980835
-290.581757 -91.657738 864.604065
-241.033554 -93.734764 858.227356
-191.485367 -95.811798 851.850647
-141.937180 -97.888832 845.473938
-92.388985 -99.965866 839.097168
-537.584167 -32.330177 886.284912
-488.035950 -34.407211 879.908203
-438.487762 -36.484241 873.531494
-388.939575 -38.561275 867.154785
-339.391388 -40.638306 860.778015
-289.843170 -42.715340 854.401306
-240.294998 -44.792370 848.024597
-190.746796 -46.869404 841.647888
-141.198608 -48.946434 835.271118
-91.650414 -51.023468 828.894409
-536.845581 16.612217 876.082153
-487.297394 14.535185 869.705444
-437.749207 12.458153 863.328735
-388.200989 10.381120 856.951965
-338.652802 8.304088 850.575256
-289.104614 6.227056 844.198547
-239.556427 4.150023 837.821838
-190.008224 2.072991 831.445129
-140.460037 -0.004041 825.068359
-90.911850 -2.081073 818.691650
-536.106995 65.554611 865.879395
-486.558807 63.477581 859.502686
-437.010620 61.400547 853.125977
-387.462433 59.323517 846.749207
-337.914246 57.246483 840.372498
-288.366058 55.169449 833.995789
-238.817856 53.092419 827.619080
-189.269669 51.015385 821.242310
-139.721466 48.938354 814.865601
-90.173279 46.861320 808.488892
-535.368469 114.497009 855.676636
-485.820251 112.419975 849.299927
-436.272064 110.342941 842.923157
-386.723877 108.265907 836.546448
-337.175659 106.188881 830.169739
-287.627472 104.111847 823.793030
-238.079285 102.034813 817.416260
-188.531097 99.957779 811.039551
-138.982910 97.880753 804.662842
-89.434708 95.803719 798.286133
-534.629883 163.439407 845.473877
-485.081696 161.362366 839.097107
-435.533478 159.285339 832.720398
-385.985291 157.208298 826.343689
-336.437103 155.131271 819.966980
-286.888916 153.054245 813.590210
-237.340714 150.977203 807.213501
-187.792526 148.900177 800.836792
-138.244339 146.823151 794.460083
-88.696144 144.746109 788.083374
-447.441162 -324.846832 798.231750
-398.165527 -321.664612 790.371216
-348.889923 -318.482391 782.510742
-299.614319 -315.300171 774.650208
-250.338715 -312.117981 766.789673
-201.063110 -308.935760 758.929138
-151.787491 -305.753540 751.068604
-102.511887 -302.571320 743.208069
-53.236275 -299.389099 735.347595
-3.960667 -296.206879 727.487061
-447.653656 -278.051849 815.843811
-398.378052 -274.869629 807.983276
-349.102448 -271.687408 800.122742
-299.826843 -268.505188 792.262268
-250.551224 -265.322968 784.401733
-201.275620 -262.140778 776.541199
-152.000015 -258.958557 768.680664
-102.724403 -255.776337 760.820129
-53.448795 -252.594116 752.959595
-4.173184 -249.411896 745.099121
-447.866180 -231.256866 833.455872
-398.590576 -228.074646 825.595337
-349.314972 -224.892426 817.734802
-300.039368 -221.710205 809.874268
-250.763748 -218.528000 802.013733
-201.488144 -215.345779 794.153259
-152.212524 -212.163559 786.292725
-102.936920 -208.981339 778.432190
-53.661312 -205.799118 770.571655
-4.385702 -202.616913 762.711121
-448.078705 -184.461884 851.067871
-398.803101 -181.279663 843.207397
-349.527496 -178.097443 835.346863
-300.251862 -174.915222 827.486328
-250.976273 -171.733002 819.625793
-201.700653 -168.550797 811.765259
-152.425049 -165.368576 803.904724
-103.149437 -162.186356 796.044250
-53.873829 -159.004135 788.183716
-4.598220 -155.821915 780.323181
-448.291229 -137.666885 868.679932
-399.015625 -134.484680 860.819397
-349.739990 -131.302460 852.958862
-300.464386 -128.120239 845.098389
-251.188782 -124.938019 837.237854
-201.913177 -121.755806 829.377319
-152.637558 -118.573586 821.516785
-103.361954 -115.391365 813.656250
-54.086346 -112.209152 805.795715
-4.810738 -109.026932 797.935242
-448.503723 -90.871902 886.291992
-399.228119 -87.689690 878.431458
-349.952515 -84.507469 870.570923
-300.676910 -81.325249 862.710388
-251.401306 -78.143036 854.849854
-202.125687 -74.960815 846.989380
-152.850082 -71.778595 839.128845
-103.574471 -68.596382 831.268311
-54.298866 -65.414162 823.407776
-5.023255 -62.231945 815.547241
-448.716248 -44.076916 903.903992
-399.440643 -40.894699 896.043518
-350.165039 -37.712482 888.182983
-300.889435 -34.530266 880.322449
-251.613815 -31.348047 872.461914
-202.338211 -28.165829 864.601379
-153.062607 -24.983612 856.740906
-103.786995 -21.801394 848.880371
-54.511383 -18.619177 841.019836
-5.235773 -15.436959 833.159302
-514.968933 -15.957968 886.604370
-465.525055 -17.951929 879.440247
-416.081146 -19.945889 872.276123
-366.637238 -21.939850 865.112000
-317.193329 -23.933811 857.947876
-267.749451 -25.927773 850.783752
-218.305542 -27.921732 843.619629
-168.861633 -29.915693 836.455505
-119.417732 -31.909655 829.291382
-69.973831 -33.903614 822.127258
-516.828674 27.365074 861.711487
-467.384766 25.371113 854.547363
-417.940857 23.377153 847.383240
-368.496948 21.383192 840.219116
-319.053040 19.389231 833.054993
-269.609161 17.395269 825.890869
-220.165253 15.401309 818.726746
-170.721344 13.407349 811.562622
-121.277443 11.413387 804.398499
-71.833542 9.419427 797.234375
-518.688354 70.688118 836.818604
-469.244476 68.694153 829.654480
-419.800568 66.700195 822.490356
-370.356659 64.706230 815.326233
-320.912750 62.712273 808.162109
-271.468872 60.718311 800.997986
-222.024963 58.724350 793.833862
-172.581055 56.730389 786.669739
-123.137154 54.736431 779.505615
-73.693253 52.742470 772.341492
-520.548096 114.011162 811.925720
-471.104187 112.017197 804.761597
-421.660278 110.023239 797.597473
-372.216370 108.029274 790.433350
-322.772461 106.035316 783.269226
-273.328583 104.041351 776.105103
-223.884674 102.047394 768.940979
-174.440765 100.053429 761.776855
-124.996864 98.059471 754.612732
-75.552963 96.065514 747.448608
-522.407776 157.334198 787.032837
-472.963898 155.340240 779.868713
-423.519989 153.346283 772.704590
-374.076080 151.352325 765.540466
-324.632172 149.358353 758.376343
-275.188293 147.364395 751.212219
-225.744385 145.370438 744.048096
-176.300476 143.376480 736.883972
-126.856575 141.382507 729.719849
-77.412674 139.388550 722.555725
-524.267517 200.657242 762.140015
-474.823608 198.663284 754.975830
-425.379700 196.669327 747.811707
-375.935791 194.675354 740.647583
-326.491882 192.681396 733.483459
-277.048004 190.687439 726.319336
-227.604095 188.693481 719.155212
-178.160187 186.699524 711.991089
-128.716278 184.705551 704.826965
-79.272385 182.711594 697.662842
-526.127197 243.980286 737.247131
-476.683319 241.986328 730.083008
-427.239410 239.992355 722.918823
-377.795502 237.998398 715.754700
-328.351593 236.004440 708.590576
-278.907715 234.010483 701.426453
-229.463791 232.016525 694.262329
-180.019897 230.022552 687.098206
-130.575989 228.028595 679.934082
-81.132095 226.034637 672.769958
-428.444885 -143.533035 868.168335
-380.093628 -135.355408 858.407043
-331.742371 -127.177765 848.645752
-283.391113 -119.000130 838.884460
-235.039871 -110.822487 829.123169
-186.688614 -102.644852 819.361877
-138.337372 -94.467216 809.600586
-89.986115 -86.289574 799.839294
-41.634865 -78.111938 790.078003
6.716387 -69.934296 780.316711
-439.841736 -98.645851 849.320190
-391.490509 -90.468216 839.558899
-343.139252 -82.290573 829.797607
-294.787994 -74.112938 820.036316
-246.436737 -65.935295 810.275024
-198.085495 -57.757660 800.513794
-149.734238 -49.580021 790.752502
-101.382988 -41.402382 780.991211
-53.031738 -33.224743 771.229919
-4.680486 -25.047106 761.468628
-451.238617 -53.758659 830.472107
-402.887360 -45.581020 820.710815
-354.536102 -37.403381 810.949524
-306.184875 -29.225744 801.188232
-257.833618 -21.048105 791.426941
-209.482361 -12.870468 781.665649
-161.131119 -4.692830 771.904358
-112.779861 3.484809 762.143066
-64.428612 11.662447 752.381775
-16.077360 19.840086 742.620483
-462.635498 -8.871468 811.623962
-414.284241 -0.693829 801.862671
-365.932983 7.483809 792.101379
-317.581726 15.661448 782.340149
-269.230499 23.839087 772.578857
-220.879242 32.016724 762.817566
-172.527985 40.194363 753.056274
-124.176735 48.372002 743.294983
-75.825485 56.549641 733.533691
-27.474234 64.727280 723.772400
-474.032379 36.015724 792.775879
-425.681122 44.193363 783.014587
-377.329865 52.371002 773.253296
-328.978607 60.548637 763.492004
-280.627350 68.726280 753.730713
-232.276108 76.903915 743.969421
-183.924866 85.081551 734.208130
-135.573608 93.259193 724.446838
-87.222359 101.436829 714.685547
-38.871105 109.614471 704.924255
-485.429230 80.902916 773.927734
-437.077972 89.080551 764.166504
-388.726746 97.258194 754.405212
-340.375488 105.435829 744.643921
-292.024231 113.613472 734.882629
-243.672989 121.791107 725.121338
-195.321732 129.968750 715.360046
-146.970474 138.146378 705.598755
-98.619232 146.324020 695.837463
-50.267979 154.501663 686.076172
-496.826111 125.790108 755.079651
-448.474854 133.967743 745.318359
-400.123596 142.145386 735.557068
-351.772369 150.323029 725.795776
-303.421112 158.500656 716.034485
-255.069855 166.678299 706.273193
-206.718613 174.855942 696.511902
-158.367355 183.033569 686.750610
-110.016106 191.211212 676.989319
-61.664852 199.388855 667.228027
-570.225891 -32.140331 874.382263
-522.261536 -44.855186 868.237854
-474.297211 -57.570042 862.093384
-426.332855 -70.284897 855.948914
-378.368500 -82.999748 849.804443
-330.404175 -95.714607 843.660034
-282.439819 -108.429459 837.515564
-234.475494 -121.144318 831.371094
-186.511139 -133.859177 825.226624
-138.546799 -146.574020 819.082214
-561.415039 11.806026 852.221802
-513.450684 -0.908829 846.077393
-465.486328 -13.623684 839.932922
-417.521973 -26.338539 833.788452
-369.557648 -39.053394 827.643982
-321.593292 -51.768250 821.499512
-273.628967 -64.483101 815.355103
-225.664612 -77.197960 809.210632
-177.700272 -89.912811 803.066162
-129.735931 -102.627670 796.921692
-552.604126 55.752384 830.061340
-504.639801 43.037529 823.916870
-456.675446 30.322672 817.772461
-408.711121 17.607819 811.627991
-360.746765 4.892963 805.483521
-312.782440 -7.821892 799.339050
-264.818085 -20.536747 793.194641
-216.853745 -33.251602 787.050171
-168.889404 -45.966457 780.905701
-120.925064 -58.681313 774.761230
-543.793274 99.698738 807.900879
-495.828918 86.983887 801.756409
-447.864594 74.269028 795.612000
-399.900238 61.554176 789.467529
-351.935913 48.839321 783.323059
-303.971558 36.124466 777.178589
-256.007233 23.409611 771.034180
-208.042877 10.694756 764.889709
-160.078537 -2.020100 758.745239
-112.114197 -14.734955 752.600769
-534.982422 143.645096 785.740417
-487.018066 130.930237 779.595947
-439.053711 118.215385 773.451477
-391.089386 105.500534 767.307068
-343.125031 92.785675 761.162598
-295.160706 80.070824 755.018127
-247.196350 67.355965 748.873657
-199.232010 54.641113 742.729248
-151.267670 41.926258 736.584778
-103.303322 29.211403 730.440308
-526.171509 187.591461 763.579956
-478.207184 174.876602 757.435486
-430.242859 162.161743 751.291016
-382.278503 149.446884 745.146606
-334.314178 136.732040 739.002136
-286.349823 124.017181 732.857666
-238.385483 111.302322 726.713196
-190.421143 98.587471 720.568787
-142.456802 85.872612 714.424316
-94.492455 73.157761 708.279846
-517.360657 231.537811 741.419495
-469.396332 218.822952 735.275024
-421.431976 206.108093 729.130554
-373.467651 193.393250 722.986145
-325.503296 180.678391 716.841675
-277.538940 167.963531 710.697205
-229.574615 155.248688 704.552734
-181.610275 142.533829 698.408325
-133.645935 129.818970 692.263855
-85.681587 117.104118 686.119385
-452.397583 -158.903595 840.027466
-402.475616 -157.374557 842.363831
-352.553619 -155.845520 844.700134
-302.631653 -154.316498 847.036438
-252.709686 -152.787460 849.372803
-202.787704 -151.258423 851.709106
-152.865723 -149.729401 854.045410
-102.943756 -148.200363 856.381775
-53.021778 -146.671326 858.718079
-3.099803 -145.142303 861.054382
-453.032776 -111.944740 822.867554
-403.110809 -110.415703 825.203857
-353.188843 -108.886673 827.540222
-303.266846 -107.357643 829.876526
-253.344879 -105.828606 832.212891
-203.422913 -104.299576 834.549194
-153.500931 -102.770546 836.885498
-103.578957 -101.241508 839.221863
-53.656979 -99.712479 841.558167
-3.735003 -98.183449 843.894470
-453.667999 -64.985886 805.707642
-403.746002 -63.456852 808.043945
-353.824036 -61.927822 810.380310
-303.902069 -60.398788 812.716614
-253.980087 -58.869755 815.052917
-204.058105 -57.340725 817.389282
-154.136124 -55.811691 819.725586
-104.214157 -54.282658 822.061890
-54.292179 -52.753628 824.398254
-4.370204 -51.224594 826.734558
-454.303192 -18.027035 788.547729
-404.381195 -16.498001 790.884033
-354.459229 -14.968969 793.220398
-304.537262 -13.439937 795.556702
-254.615280 -11.910905 797.893005
-204.693314 -10.381872 800.229370
-154.771332 -8.852840 802.565674
-104.849358 -7.323808 804.901978
-54.927380 -5.794775 807.238342
-5.005404 -4.265743 809.574646
-454.938385 28.931818 771.387817
-405.016418 30.460850 773.724121
-355.094421 31.989882 776.060486
-305.172455 33.518913 778.396790
-255.250488 35.047947 780.733093
-205.328506 36.576981 783.069458
-155.406525 38.106010 785.405762
-105.484558 39.635044 787.742065
-55.562580 41.164078 790.078430
-5.640605 42.693108 792.414734
-455.573578 75.890671 754.227905
-405.651611 77.419701 756.564209
-355.729645 78.948730 758.900513
-305.807648 80.477768 761.236877
-255.885681 82.006798 763.573181
-205.963715 83.535828 765.909485
-156.041733 85.064865 768.245850
-106.119759 86.593895 770.582153
-56.197781 88.122925 772.918457
-6.275806 89.651962 775.254822
-456.208801 122.849518 737.067993
-406.286804 124.378555 739.404297
-356.364838 125.907585 741.740601
-306.442871 127.436615 744.076965
-256.520874 128.965652 746.413269
-206.598907 130.494675 748.749573
-156.676926 132.023712 751.085938
-106.754959 133.552750 753.422241
-56.832981 135.081772 755.758545
-6.911006 136.610809 758.094910
-483.176971 -118.270393 741.627075
-433.325867 -118.521530 737.779846
-383.474731 -118.772667 733.932617
-333.623596 -119.023804 730.085327
-283.772461 -119.274933 726.238098
-233.921310 -119.526070 722.390869
-184.070175 -119.777206 718.543640
-134.219040 -120.028343 714.696411
-84.367905 -120.279472 710.849121
-34.516773 -120.530609 707.001892
-482.867676 -68.276894 742.371521
-433.016541 -68.528030 738.524292
-383.165405 -68.779167 734.677063
-333.314270 -69.030296 730.829773
-283.463135 -69.281433 726.982544
-233.612000 -69.532570 723.135315
-183.760880 -69.783707 719.288086
-133.909744 -70.034836 715.440857
-84.058601 -70.285973 711.593567
-34.207466 -70.537109 707.746338
-482.558380 -18.283394 743.115967
-432.707245 -18.534529 739.268738
-382.856110 -18.785664 735.421509
-333.004974 -19.036798 731.574280
-283.153839 -19.287933 727.726990
-233.302704 -19.539068 723.879761
-183.451569 -19.790203 720.032532
-133.600433 -20.041338 716.185303
-83.749298 -20.292473 712.338013
-33.898163 -20.543608 708.490784
-482.249084 31.710108 743.860413
-432.397949 31.458973 740.013184
-382.546814 31.207838 736.165955
-332.695679 30.956703 732.318726
-282.844543 30.705568 728.471436
-232.993393 30.454433 724.624207
-183.142258 30.203299 720.776978
-133.291122 29.952162 716.929749
-83.439995 29.701027 713.082520
-33.588856 29.449892 709.235229
-481.939758 81.703606 744.604858
-432.088623 81.452477 740.757629
-382.237488 81.201340 736.910400
-332.386353 80.950203 733.063171
-282.535217 80.699066 729.215881
-232.684097 80.447937 725.368652
-182.832962 80.196800 721.521423
-132.981827 79.945663 717.674194
-83.130692 79.694527 713.826965
-33.279552 79.443398 709.979675
-481.630463 131.697113 745.349304
-431.779327 131.445969 741.502075
-381.928192 131.194839 737.654846
-332.077057 130.943710 733.807617
-282.225922 130.692566 729.960327
-232.374786 130.441437 726.113098
-182.523651 130.190292 722.265869
-132.672516 129.939163 718.418640
-82.821381 129.688034 714.571411
-32.970249 129.436890 710.724121
-481.321167 181.690613 746.093750
-431.470032 181.439468 742.246521
-381.618896 181.188339 738.399292
-331.767761 180.937210 734.552063
-281.916626 180.686066 730.704834
-232.065491 180.434937 726.857544
-182.214355 180.183807 723.010315
-132.363220 179.932663 719.163086
-82.512077 179.681534 715.315857
-32.660942 179.430389 711.468567
-460.507751 -273.796356 721.906555
-410.966309 -278.781128 726.467102
-361.424866 -283.765900 731.027588
-311.883453 -288.750671 735.588135
-262.342010 -293.735474 740.148621
-212.800583 -298.720245 744.709167
-163.259140 -303.705017 749.269714
-113.717712 -308.689819 753.830200
-64.176277 -313.674591 758.390747
-14.634848 -318.659363 762.951294
-456.621796 -225.163666 732.850159
-407.080383 -230.148453 737.410706
-357.538940 -235.133224 741.971191
-307.997498 -240.118011 746.531738
-258.456085 -245.102798 751.092285
-208.914642 -250.087570 755.652771
-159.373215 -255.072357 760.213318
-109.831779 -260.057129 764.773804
-60.290348 -265.041931 769.334351
-10.748915 -270.026703 773.894897
-452.735870 -176.530991 743.793762
-403.194458 -181.515778 748.354309
-353.653015 -186.500549 752.914795
-304.111572 -191.485336 757.475342
-254.570145 -196.470123 762.035889
-205.028717 -201.454895 766.596375
-155.487274 -206.439682 771.156921
-105.945847 -211.424469 775.717407
-56.404415 -216.409241 780.277954
-6.862982 -221.394028 784.838501
-448.849945 -127.898315 754.737366
-399.308502 -132.883102 759.297913
-349.767090 -137.867874 763.858398
-300.225647 -142.852661 768.418945
-250.684219 -147.837448 772.979492
-201.142776 -152.822220 777.539978
-151.601349 -157.807007 782.100525
-102.059914 -162.791794 786.661011
-52.518482 -167.776566 791.221558
-2.977049 -172.761353 795.782104
-444.964020 -79.265640 765.680969
-395.422577 -84.250427 770.241516
-345.881134 -89.235207 774.802002
-296.339722 -94.219986 779.362549
-246.798279 -99.204773 783.923096
-197.256851 -104.189552 788.483582
-147.715408 -109.174332 793.044128
-98.173981 -114.159111 797.604675
-48.632549 -119.143898 802.165161
0.908884 -124.128677 806.725708
-441.078064 -30.632969 776.624573
-391.536652 -35.617748 781.185120
-341.995209 -40.602531 785.745605
-292.453766 -45.587315 790.306152
-242.912354 -50.572094 794.866699
-193.370911 -55.556877 799.427185
-143.829483 -60.541656 803.987732
-94.288048 -65.526436 808.548279
-44.746616 -70.511223 813.108765
4.794816 -75.496002 817.669312
-437.192139 17.999706 787.568176
-387.650726 13.014924 792.128723
-338.109283 8.030143 796.689209
-288.567841 3.045361 801.249756
-239.026413 -1.939420 805.810303
-189.484985 -6.924202 810.370789
-139.943542 -11.908983 814.931335
-90.402115 -16.893764 819.491882
-40.860683 -21.878546 824.052368
8.680749 -26.863329 828.612915
-514.237000 -121.264908 780.398010
-465.636627 -121.852386 768.665161
-417.036255 -122.439865 756.932312
-368.435913 -123.027344 745.199524
-319.835541 -123.614822 733.466675
-271.235168 -124.202301 721.733826
-222.634811 -124.789780 710.000977
-174.034439 -125.377251 698.268127
-125.434074 -125.964729 686.535339
-76.833710 -126.552208 674.802490
-510.312866 -73.384064 794.255310
-461.712494 -73.971535 782.522461
-413.112122 -74.559013 770.789673
-364.511749 -75.146492 759.056824
-315.911407 -75.733971 747.323975
-267.311035 -76.321449 735.591125
-218.710663 -76.908928 723.858276
-170.110306 -77.496399 712.125488
-121.509941 -78.083878 700.392639
-72.909576 -78.671356 688.659790
-506.388702 -25.503210 808.112610
-457.788361 -26.090687 796.379822
-409.187988 -26.678165 784.646973
-360.587616 -27.265642 772.914124
-311.987244 -27.853119 761.181274
-263.386902 -28.440598 749.448486
-214.786530 -29.028074 737.715637
-166.186172 -29.615551 725.982788
-117.585800 -30.203030 714.249939
-68.985435 -30.790506 702.517090
-502.464569 22.377642 821.969971
-453.864227 21.790163 810.237122
-405.263855 21.202686 798.504272
-356.663483 20.615210 786.771423
-308.063110 20.027731 775.038635
-259.462769 19.440254 763.305786
-210.862396 18.852777 751.572937
-162.262024 18.265299 739.840088
-113.661659 17.677822 728.107239
-65.061295 17.090345 716.374451
-498.540436 70.258492 835.827271
-449.940063 69.671013 824.094421
-401.339722 69.083534 812.361572
-352.739349 68.496063 800.628784
-304.138977 67.908585 788.895935
-255.538620 67.321106 777.163086
-206.938248 66.733627 765.430237
-158.337891 66.146149 753.697449
-109.737526 65.558670 741.964600
-61.137157 64.971199 730.231750
-494.616302 118.139343 849.684570
-446.015930 117.551865 837.951782
-397.415558 116.964386 826.218933
-348.815216 116.376907 814.486084
-300.214844 115.789436 802.753235
-251.614471 115.201958 791.020386
-203.014114 114.614479 779.287598
-154.413742 114.027000 767.554749
-105.813385 113.439522 755.821899
-57.213020 112.852043 744.089050
-490.692169 166.020187 863.541931
-442.091797 165.432724 851.809082
-393.491425 164.845245 840.076233
-344.891083 164.257767 828.343384
-296.290710 163.670288 816.610535
-247.690338 163.082809 804.877747
-199.089981 162.495331 793.144897
-150.489609 161.907852 781.412048
-101.889244 161.320374 769.679199
-53.288883 160.732895 757.946411
-475.448639 -277.053833 732.988281
-425.756226 -280.996582 729.100159
-376.063782 -284.939301 725.211975
-326.371368 -288.882050 721.323853
-276.678925 -292.824768 717.435730
-226.986511 -296.767517 713.547546
-177.294083 -300.710266 709.659424
-127.601654 -304.652985 705.771301
-77.909233 -308.595734 701.883118
-28.216806 -312.538452 697.994995
-470.162415 -232.822708 755.696533
-420.470001 -236.765442 751.808350
-370.777588 -240.708191 747.920227
-321.085144 -244.650925 744.032104
-271.392731 -248.593658 740.143921
-221.700302 -252.536392 736.255798
-172.007874 -256.479126 732.367676
-122.315445 -260.421875 728.479492
-72.623024 -264.364594 724.591370
-22.930597 -268.307343 720.703247
-464.876221 -188.591583 778.404724
-415.183807 -192.534317 774.516602
-365.491364 -196.477066 770.628479
-315.798950 -200.419800 766.740295
-266.106506 -204.362534 762.852173
-216.414093 -208.305267 758.964050
-166.721664 -212.248001 755.075867
-117.029236 -216.190750 751.187744
-67.336815 -220.133484 747.299622
-17.644388 -224.076218 743.411438
-459.589996 -144.360458 801.112976
-409.897583 -148.303192 797.224854
-360.205170 -152.245941 793.336670
-310.512726 -156.188675 789.448547
-260.820312 -160.131409 785.560364
-211.127884 -164.074142 781.672241
-161.435455 -168.016876 777.784119
-111.743034 -171.959625 773.895935
-62.050606 -175.902359 770.007812
-12.358179 -179.845093 766.119690
-454.303802 -100.129333 823.821167
-404.611389 -104.072075 819.933044
-354.918945 -108.014809 816.044922
-305.226532 -111.957542 812.156738
-255.534103 -115.900284 808.268616
-205.841675 -119.843018 804.380493
-156.149246 -123.785759 800.492310
-106.456825 -127.728493 796.604187
-56.764397 -131.671234 792.716064
-7.071971 -135.613968 788.827881
-449.017578 -55.898209 846.529419
-399.325165 -59.840946 842.641296
-349.632751 -63.783684 838.753113
-299.940308 -67.726418 834.864990
-250.247894 -71.669159 830.976868
-200.555466 -75.611893 827.088684
-150.863037 -79.554634 823.200562
-101.170616 -83.497368 819.312439
-51.478188 -87.440109 815.424255
-1.785762 -91.382843 811.536133
-443.731384 -11.667086 869.237671
-394.038971 -15.609822 865.349487
-344.346527 -19.552559 861.461365
-294.654114 -23.495296 857.573242
-244.961685 -27.438034 853.685059
-195.269257 -31.380770 849.796936
-145.576828 -35.323505 845.908813
-95.884407 -39.266243 842.020630
-46.191978 -43.208981 838.132507
3.500447 -47.151718 834.244385
